             -0.000270625             -5.85651e-05              6.43958e-06
                -0.298755                -0.978799              0.000137479
                 -5.03054                 -2.08794                 0.121185
                 0.453424                -0.565787                -0.033937
                -0.295272                  1.57009                0.0402625
                 -1.04513                  -9.9955                 0.215358
                  18.0868                  8.36653                -0.203248
                  28.4921                 -9.21804                -0.466855
                  10.1427                 -31.7567                 0.464118
                 0.367707               -0.0439657                -0.037277
             -0.000271472             -5.88176e-05                 6.46e-06
                 -0.29286                -0.980601                0.0001367
                 -5.02951                 -2.09036                 0.121172
                   0.4591                -0.561172               -0.0342012
                -0.300089                  1.56956                0.0403701
                 -1.04322                 -9.99572                 0.215285
                  18.0862                  8.36776                -0.203236
                  28.4925                 -9.21694                -0.466886
                  10.1438                 -31.7566                 0.463785
                 0.366813               -0.0334871               -0.0363421
              -0.00027232              -5.9071e-05              6.48044e-06
                -0.286953                -0.982367              0.000135916
                 -5.02848                 -2.09277                 0.121159
                 0.464728                -0.556498                -0.034462
                -0.304904                  1.56902                0.0404772
                  -1.0413                 -9.99594                 0.215213
                  18.0856                    8.369                -0.203223
                  28.4928                 -9.21585                -0.466917
                  10.1449                 -31.7564                 0.463451
                 0.365634               -0.0229825               -0.0353788
             -0.000273169             -5.93253e-05              6.50089e-06
                -0.281036                -0.984096              0.000135127
                 -5.02745                 -2.09518                 0.121147
                 0.470308                -0.551767               -0.0347192
                -0.309715                  1.56846                 0.040584
                 -1.03939                 -9.99615                 0.215141
                   18.085                  8.37024                -0.203211
                  28.4932                 -9.21475                -0.466947
                   10.146                 -31.7563                 0.463118
                 0.364166               -0.0124597               -0.0343877
             -0.000274019             -5.95803e-05              6.52136e-06
                -0.275108                 -0.98579              0.000134334
                 -5.02642                 -2.09759                 0.121133
                 0.475839                 -0.54698               -0.0349728
                -0.314524                  1.56789                0.0406904
                 -1.03747                 -9.99637                 0.215068
                  18.0843                  8.37147                -0.203198
                  28.4935                 -9.21365                -0.466978
                  10.1471                 -31.7562                 0.462785
                 0.362405              -0.00192705               -0.0333689
              -0.00027487             -5.98362e-05              6.54185e-06
                -0.269171                -0.987447              0.000133536
                 -5.02539                     -2.1                  0.12112
                 0.481322                -0.542135               -0.0352228
                -0.319329                   1.5673                0.0407964
                 -1.03556                 -9.99659                 0.214996
                  18.0837                  8.37271                -0.203186
                  28.4939                 -9.21256                -0.467008
                  10.1482                 -31.7561                 0.462452
                 0.360347               0.00860716               -0.0323228
             -0.000275722              -6.0093e-05              6.56236e-06
                -0.263223                -0.989068              0.000132734
                 -5.02436                 -2.10241                 0.121107
                 0.486754                -0.537235               -0.0354691
                -0.324132                  1.56669                 0.040902
                 -1.03365                  -9.9968                 0.214923
                  18.0831                  8.37394                -0.203173
                  28.4942                 -9.21146                -0.467039
                  10.1493                  -31.756                 0.462118
                  0.35799                0.0191342               -0.0312499
             -0.000276575             -6.03506e-05              6.58289e-06
                -0.257266                -0.990652              0.000131927
                 -5.02332                 -2.10482                 0.121094
                 0.492137                 -0.53228               -0.0357118
                -0.328931                  1.56608                0.0410072
                 -1.03173                 -9.99702                 0.214851
                  18.0825                  8.37518                -0.203161
                  28.4946                 -9.21036                 -0.46707
                  10.1504                 -31.7559                 0.461785
                 0.355331                0.0296449               -0.0301505
             -0.000277429              -6.0609e-05              6.60343e-06
                -0.251299                  -0.9922              0.000131115
                 -5.02229                 -2.10723                 0.121081
                 0.497468                -0.527269               -0.0359508
                -0.333727                  1.56544                 0.041112
                 -1.02982                 -9.99723                 0.214778
                  18.0819                  8.37641                -0.203148
                  28.4949                 -9.20926                  -0.4671
                  10.1516                 -31.7558                 0.461452
                 0.352365                0.0401302               -0.0290253
             -0.000278284             -6.08682e-05              6.62399e-06
                -0.245323                -0.993711              0.000130299
                 -5.02125                 -2.10964                 0.121068
                 0.502748                -0.522204               -0.0361862
                 -0.33852                  1.56479                0.0412164
                  -1.0279                 -9.99745                 0.214706
                  18.0813                  8.37765                -0.203136
                  28.4952                 -9.20817                -0.467131
                  10.1527                 -31.7557                 0.461118
                 0.349091                0.0505803               -0.0278746
              -0.00027914             -6.11283e-05              6.64458e-06
                -0.239339                -0.995186              0.000129478
                 -5.02021                 -2.11205                 0.121055
                 0.507977                -0.517086               -0.0364177
                 -0.34331                  1.56413                0.0413204
                 -1.02599                 -9.99766                 0.214633
                  18.0807                  8.37888                -0.203123
                  28.4956                 -9.20707                -0.467162
                  10.1538                 -31.7556                 0.460785
                 0.345507                0.0609854               -0.0266992
             -0.000279997             -6.13891e-05              6.66518e-06
                -0.233345                -0.996624              0.000128653
                 -5.01917                 -2.11446                 0.121041
                 0.513152                -0.511913               -0.0366455
                -0.348096                  1.56345                 0.041424
                 -1.02407                 -9.99787                 0.214561
                    18.08                  8.38012                -0.203111
                  28.4959                 -9.20597                -0.467192
                  10.1549                 -31.7555                 0.460452
                  0.34161                0.0713353               -0.0254996
             -0.000280855             -6.16508e-05              6.68579e-06
                -0.227342                -0.998026              0.000127823
                 -5.01813                 -2.11687                 0.121028
                 0.518275                -0.506688               -0.0368696
                 -0.35288                  1.56275                0.0415272
                 -1.02216                 -9.99809                 0.214488
                  18.0794                  8.38136                -0.203098
                  28.4963                 -9.20488                -0.467223
                   10.156                 -31.7554                 0.460119
                 0.337398                0.0816196               -0.0242765
             -0.000281715             -6.19134e-05              6.70643e-06
                -0.221332                 -0.99939              0.000126989
                 -5.01709                 -2.11927                 0.121015
                 0.523345                -0.501411               -0.0370898
                -0.357659                  1.56204                0.0416301
                 -1.02025                  -9.9983                 0.214416
                  18.0788                  8.38259                -0.203085
                  28.4966                 -9.20378                -0.467253
                  10.1571                 -31.7553                 0.459785
                 0.332872                0.0918275               -0.0230308
             -0.000282575             -6.21767e-05              6.72709e-06
                -0.215313                 -1.00072              0.000126151
                 -5.01605                 -2.12168                 0.121002
                  0.52836                -0.496082               -0.0373062
                -0.362436                  1.56132                0.0417325
                 -1.01833                 -9.99851                 0.214343
                  18.0782                  8.38383                -0.203073
                   28.497                 -9.20268                -0.467284
                  10.1582                 -31.7552                 0.459452
                 0.328028                 0.101948               -0.0217632
             -0.000283436             -6.24409e-05              6.74776e-06
                -0.209286                 -1.00201              0.000125308
                   -5.015                 -2.12409                 0.120988
                 0.533321                -0.490702               -0.0375187
                -0.367208                  1.56058                0.0418345
                 -1.01642                 -9.99872                  0.21427
                  18.0776                  8.38506                 -0.20306
                  28.4973                 -9.20158                -0.467315
                  10.1593                 -31.7551                 0.459119
                 0.322868                  0.11197               -0.0204746
             -0.000284299             -6.27059e-05              6.76845e-06
                -0.203252                 -1.00326               0.00012446
                 -5.01396                 -2.12649                 0.120975
                 0.538226                -0.485271               -0.0377274
                -0.371978                  1.55983                0.0419361
                  -1.0145                 -9.99893                 0.214198
                   18.077                   8.3863                -0.203048
                  28.4977                 -9.20049                -0.467345
                  10.1604                 -31.7549                 0.458785
                  0.31739                 0.121882               -0.0191658
             -0.000285162             -6.29717e-05              6.78916e-06
                 -0.19721                 -1.00448              0.000123609
                 -5.01291                  -2.1289                 0.120961
                 0.543076                 -0.47979               -0.0379321
                -0.376744                  1.55906                0.0420373
                 -1.01259                 -9.99915                 0.214125
                  18.0764                  8.38753                -0.203035
                   28.498                 -9.19939                -0.467376
                  10.1616                 -31.7548                 0.458452
                 0.311596                 0.131673                -0.017838
             -0.000286026             -6.32383e-05              6.80989e-06
                -0.191161                 -1.00566              0.000122753
                 -5.01186                  -2.1313                 0.120948
                  0.54787                 -0.47426                -0.038133
                -0.381506                  1.55827                0.0421382
                 -1.01067                 -9.99936                 0.214053
                  18.0757                  8.38877                -0.203023
                  28.4983                 -9.19829                -0.467406
                  10.1627                 -31.7547                 0.458119
                 0.305485                  0.14133                -0.016492
             -0.000286892             -6.35057e-05              6.83064e-06
                -0.185105                  -1.0068              0.000121893
                 -5.01081                  -2.1337                 0.120935
                 0.552607                 -0.46868               -0.0383299
                -0.386264                  1.55747                0.0422386
                 -1.00876                 -9.99957                  0.21398
                  18.0751                     8.39                 -0.20301
                  28.4987                  -9.1972                -0.467437
                  10.1638                 -31.7546                 0.457786
                  0.29906                 0.150842               -0.0151291
             -0.000287758             -6.37739e-05              6.85141e-06
                -0.179042                 -1.00791              0.000121029
                 -5.00976                 -2.13611                 0.120921
                 0.557288                -0.463052               -0.0385229
                -0.391019                  1.55666                0.0423386
                 -1.00685                 -9.99978                 0.213908
                  18.0745                  8.39124                -0.202998
                   28.499                  -9.1961                -0.467468
                  10.1649                 -31.7545                 0.457452
                 0.292322                 0.160196               -0.0137504
             -0.000288626             -6.40429e-05              6.87219e-06
                -0.172972                 -1.00898              0.000120161
                 -5.00871                 -2.13851                 0.120908
                  0.56191                -0.457377               -0.0387118
                 -0.39577                  1.55583                0.0424382
                 -1.00493                 -9.99999                 0.213835
                  18.0739                  8.39247                -0.202985
                  28.4994                   -9.195                -0.467498
                   10.166                 -31.7544                 0.457119
                 0.285274                  0.16938               -0.0123571
             -0.000289494             -6.43127e-05                6.893e-06
                -0.166896                 -1.01001              0.000119288
                 -5.00766                 -2.14091                 0.120894
                 0.566475                -0.451654               -0.0388968
                -0.400518                  1.55499                0.0425374
                 -1.00302                 -10.0002                 0.213762
                  18.0733                  8.39371                -0.202973
                  28.4997                  -9.1939                -0.467529
                  10.1671                 -31.7543                 0.456786
                 0.277919                 0.178381               -0.0109505
             -0.000290363             -6.45834e-05              6.91382e-06
                -0.160814                 -1.01101              0.000118412
                  -5.0066                 -2.14331                  0.12088
                 0.570981                -0.445884               -0.0390778
                -0.405261                  1.55413                0.0426362
                  -1.0011                 -10.0004                  0.21369
                  18.0727                  8.39494                 -0.20296
                  28.5001                 -9.19281                 -0.46756
                  10.1682                 -31.7542                 0.456452
                  0.27026                 0.187188              -0.00953188
             -0.000291234             -6.48548e-05              6.93466e-06
                -0.154726                 -1.01196              0.000117531
                 -5.00555                 -2.14571                 0.120867
                 0.575428                -0.440069               -0.0392547
                -0.410001                  1.55326                0.0427346
                -0.999186                 -10.0006                 0.213617
                  18.0721                  8.39618                -0.202947
                  28.5004                 -9.19171                 -0.46759
                  10.1693                 -31.7541                 0.456119
                 0.262301                 0.195788              -0.00810274
             -0.000292105              -6.5127e-05              6.95553e-06
                -0.148633                 -1.01288              0.000116646
                 -5.00449                 -2.14812                 0.120853
                 0.579815                -0.434208               -0.0394276
                -0.414737                  1.55237                0.0428326
                -0.997272                 -10.0008                 0.213544
                  18.0714                  8.39741                -0.202935
                  28.5008                 -9.19061                -0.467621
                  10.1704                  -31.754                 0.455786
                 0.254048                 0.204168              -0.00666451
             -0.000292978                -6.54e-05              6.97641e-06
                -0.142533                 -1.01377              0.000115757
                 -5.00343                 -2.15052                 0.120839
                 0.584143                -0.428302               -0.0395964
                -0.419468                  1.55147                0.0429302
                -0.995357                  -10.001                 0.213472
                  18.0708                  8.39865                -0.202922
                  28.5011                 -9.18951                -0.467651
                  10.1716                 -31.7539                 0.455452
                 0.245506                 0.212315              -0.00521869
             -0.000293851             -6.56738e-05              6.99731e-06
                -0.136429                 -1.01461              0.000114865
                 -5.00237                 -2.15292                 0.120826
                  0.58841                -0.422352               -0.0397611
                -0.424196                  1.55055                0.0430273
                -0.993442                 -10.0012                 0.213399
                  18.0702                  8.39988                 -0.20291
                  28.5014                 -9.18842                -0.467682
                  10.1727                 -31.7538                 0.455119
                 0.236681                 0.220218              -0.00376685
             -0.000294725             -6.59484e-05              7.01823e-06
                 -0.13032                 -1.01542              0.000113968
                 -5.00131                 -2.15531                 0.120812
                 0.592617                -0.416358               -0.0399217
                 -0.42892                  1.54962                0.0431241
                -0.991527                 -10.0014                 0.213327
                  18.0696                  8.40112                -0.202897
                  28.5018                 -9.18732                -0.467713
                  10.1738                 -31.7537                 0.454786
                 0.227579                 0.227865              -0.00231061
             -0.000295601             -6.62238e-05              7.03917e-06
                -0.124206                 -1.01619              0.000113068
                 -5.00025                 -2.15771                 0.120798
                 0.596762                -0.410321               -0.0400781
                 -0.43364                  1.54867                0.0432205
                -0.989612                 -10.0016                 0.213254
                   18.069                  8.40235                -0.202885
                  28.5021                 -9.18622                -0.467743
                  10.1749                 -31.7536                 0.454453
                 0.218209                 0.235243             -0.000851645
             -0.000296477                -6.65e-05              7.06013e-06
                -0.118087                 -1.01692              0.000112163
                 -4.99919                 -2.16011                 0.120784
                 0.600845                -0.404242               -0.0402304
                -0.438356                  1.54771                0.0433164
                -0.987697                 -10.0019                 0.213181
                  18.0684                  8.40359                -0.202872
                  28.5025                 -9.18512                -0.467774
                   10.176                 -31.7534                 0.454119
                 0.208579                  0.24234              0.000608347
             -0.000297355             -6.67769e-05              7.08111e-06
                -0.111964                 -1.01762              0.000111255
                 -4.99812                 -2.16251                 0.120771
                 0.604866                -0.398121               -0.0403786
                -0.443067                  1.54673                0.0434119
                -0.985782                 -10.0021                 0.213108
                  18.0677                  8.40482                -0.202859
                  28.5028                 -9.18403                -0.467804
                  10.1771                 -31.7533                 0.453786
                 0.198697                 0.249145               0.00206761
             -0.000298233             -6.70546e-05              7.10212e-06
                -0.105837                 -1.01828              0.000110343
                 -4.99706                 -2.16491                 0.120757
                 0.608825                -0.391959               -0.0405226
                -0.447774                  1.54574                0.0435071
                -0.983867                 -10.0023                 0.213036
                  18.0671                  8.40606                -0.202847
                  28.5032                 -9.18293                -0.467835
                  10.1782                 -31.7532                 0.453453
                 0.188572                 0.255647               0.00352437
             -0.000299112             -6.73331e-05              7.12314e-06
               -0.0997059                  -1.0189              0.000109427
                 -4.99599                  -2.1673                 0.120743
                 0.612721                -0.385756               -0.0406624
                -0.452478                  1.54474                0.0436018
                -0.981952                 -10.0025                 0.212963
                  18.0665                  8.40729                -0.202834
                  28.5035                 -9.18183                -0.467866
                  10.1793                 -31.7531                 0.453119
                 0.178216                 0.261834               0.00497681
             -0.000299993             -6.76124e-05              7.14418e-06
               -0.0935712                 -1.01948              0.000108508
                 -4.99492                  -2.1697                 0.120729
                 0.616553                -0.379514                -0.040798
                -0.457176                  1.54372                0.0436961
                -0.980037                 -10.0027                  0.21289
                  18.0659                  8.40853                -0.202822
                  28.5039                 -9.18073                -0.467896
                  10.1805                  -31.753                 0.452786
                 0.167638                 0.267697               0.00642309
             -0.000300874             -6.78925e-05              7.16525e-06
               -0.0874332                 -1.02003              0.000107585
                 -4.99386                 -2.17209                 0.120715
                 0.620321                -0.373232               -0.0409293
                -0.461871                  1.54268                  0.04379
                -0.978122                 -10.0029                 0.212818
                  18.0653                  8.40976                -0.202809
                  28.5042                 -9.17964                -0.467927
                  10.1816                 -31.7529                 0.452453
                  0.15685                 0.273226               0.00786135
             -0.000301757             -6.81733e-05              7.18633e-06
               -0.0812919                 -1.02054              0.000106658
                 -4.99279                 -2.17449                 0.120701
                 0.624026                -0.366912               -0.0410565
                -0.466561                  1.54163                0.0438834
                -0.976207                 -10.0031                 0.212745
                  18.0647                    8.411                -0.202797
                  28.5045                 -9.17854                -0.467957
                  10.1827                 -31.7528                  0.45212
                 0.145865                  0.27841               0.00928973
              -0.00030264             -6.84549e-05              7.20744e-06
               -0.0751476                 -1.02101              0.000105727
                 -4.99171                 -2.17688                 0.120687
                 0.627665                -0.360553               -0.0411793
                -0.471247                  1.54057                0.0439765
                -0.974292                 -10.0033                 0.212672
                   18.064                  8.41223                -0.202784
                  28.5049                 -9.17744                -0.467988
                  10.1838                 -31.7527                 0.451786
                 0.134694                 0.283242                0.0107063
             -0.000303524             -6.87372e-05              7.22857e-06
               -0.0690006                 -1.02144              0.000104793
                 -4.99064                 -2.17928                 0.120673
                  0.63124                -0.354158                -0.041298
                -0.475928                  1.53949                0.0440691
                -0.972376                 -10.0035                 0.212599
                  18.0634                  8.41346                -0.202772
                  28.5052                 -9.17634                -0.468019
                  10.1849                 -31.7526                 0.451453
                 0.123351                 0.287712                0.0121093
              -0.00030441             -6.90203e-05              7.24972e-06
                -0.062851                 -1.02184              0.000103855
                 -4.98957                 -2.18167                 0.120659
                 0.634749                -0.347725               -0.0414123
                -0.480605                   1.5384                0.0441614
                -0.970461                 -10.0037                 0.212527
                  18.0628                   8.4147                -0.202759
                  28.5056                 -9.17525                -0.468049
                   10.186                 -31.7525                  0.45112
                  0.11185                 0.291813                0.0134968
             -0.000305296             -6.93042e-05              7.27089e-06
               -0.0566992                  -1.0222              0.000102914
                 -4.98849                 -2.18406                 0.120645
                 0.638193                -0.341257               -0.0415224
                -0.485277                  1.53729                0.0442532
                -0.968546                 -10.0039                 0.212454
                  18.0622                  8.41593                -0.202746
                  28.5059                 -9.17415                 -0.46808
                  10.1871                 -31.7524                 0.450786
                 0.100204                 0.295539                0.0148668
             -0.000306183             -6.95889e-05              7.29209e-06
               -0.0505452                 -1.02252               0.00010197
                 -4.98742                 -2.18645                 0.120631
                  0.64157                -0.334753               -0.0416281
                -0.489945                  1.53617                0.0443446
                 -0.96663                 -10.0041                 0.212381
                  18.0616                  8.41717                -0.202734
                  28.5063                 -9.17305                 -0.46811
                  10.1882                 -31.7523                 0.450453
                0.0884286                 0.298882                0.0162177
             -0.000307072             -6.98743e-05               7.3133e-06
               -0.0443895                  -1.0228              0.000101021
                 -4.98634                 -2.18885                 0.120617
                 0.644881                -0.328215               -0.0417296
                -0.494608                  1.53503                0.0444356
                -0.964715                 -10.0043                 0.212308
                   18.061                   8.4184                -0.202721
                  28.5066                 -9.17195                -0.468141
                  10.1893                 -31.7522                  0.45012
                0.0765379                 0.301838                0.0175476
             -0.000307961             -7.01604e-05              7.33454e-06
               -0.0382321                 -1.02305               0.00010007
                 -4.98526                 -2.19124                 0.120602
                 0.648125                -0.321643               -0.0418267
                -0.499267                  1.53388                0.0445261
                -0.962799                 -10.0045                 0.212236
                  18.0603                  8.41964                -0.202709
                  28.5069                 -9.17086                -0.468172
                  10.1905                  -31.752                 0.449786
                0.0645474                 0.304401                0.0188547
             -0.000308851             -7.04474e-05               7.3558e-06
               -0.0320733                 -1.02325               9.9115e-05
                 -4.98418                 -2.19363                 0.120588
                 0.651302                -0.315037               -0.0419195
                 -0.50392                  1.53272                0.0446163
                -0.960884                 -10.0047                 0.212163
                  18.0597                  8.42087                -0.202696
                  28.5073                 -9.16976                -0.468202
                  10.1916                 -31.7519                 0.449453
                0.0524724                 0.306569                0.0201372
             -0.000309743              -7.0735e-05              7.37709e-06
               -0.0259133                 -1.02342              9.81568e-05
                  -4.9831                 -2.19602                 0.120574
                 0.654412                -0.308399               -0.0420079
                -0.508569                  1.53154                 0.044706
                -0.958968                 -10.0049                  0.21209
                  18.0591                   8.4221                -0.202684
                  28.5076                 -9.16866                -0.468233
                  10.1927                 -31.7518                  0.44912
                0.0403287                 0.308337                0.0213935
             -0.000310635             -7.10235e-05               7.3984e-06
               -0.0197524                 -1.02356              9.71952e-05
                 -4.98202                 -2.19841                  0.12056
                 0.657453                -0.301729                -0.042092
                -0.513214                  1.53034                0.0447953
                -0.957053                 -10.0051                 0.212017
                  18.0585                  8.42334                -0.202671
                   28.508                 -9.16756                -0.468263
                  10.1938                 -31.7517                 0.448787
                0.0281321                 0.309703                 0.022622
             -0.000311528             -7.13127e-05              7.41973e-06
               -0.0135908                 -1.02365              9.62304e-05
                 -4.98093                  -2.2008                 0.120545
                 0.660427                -0.295027               -0.0421717
                -0.517853                  1.52914                0.0448842
                -0.955137                 -10.0053                 0.211944
                  18.0579                  8.42457                -0.202658
                  28.5083                 -9.16647                -0.468294
                  10.1949                 -31.7516                 0.448453
                0.0158984                 0.310666                 0.023821
             -0.000312423             -7.16026e-05              7.44108e-06
              -0.00742872                 -1.02371              9.52623e-05
                 -4.97985                 -2.20318                 0.120531
                 0.663331                -0.288295               -0.0422471
                -0.522488                  1.52791                0.0449727
                -0.953222                 -10.0055                 0.211872
                  18.0573                  8.42581                -0.202646
                  28.5087                 -9.16537                -0.468325
                   10.196                 -31.7515                  0.44812
               0.00364371                 0.311225                0.0249891
             -0.000313318             -7.18933e-05              7.46246e-06
              -0.00126636                 -1.02373              9.42911e-05
                 -4.97876                 -2.20557                 0.120517
                 0.666167                -0.281533                -0.042318
                -0.527118                  1.52668                0.0450607
                -0.951306                 -10.0057                 0.211799
                  18.0566                  8.42704                -0.202633
                   28.509                 -9.16427                -0.468355
                  10.1971                 -31.7514                 0.447787
              -0.00861611                 0.311381                0.0261249
             -0.000314214             -7.21847e-05              7.48386e-06
               0.00489603                 -1.02371              9.33166e-05
                 -4.97768                 -2.20796                 0.120502
                 0.668934                -0.274742               -0.0423846
                -0.531743                  1.52543                0.0451483
                 -0.94939                 -10.0059                 0.211726
                   18.056                  8.42827                -0.202621
                  28.5093                 -9.16317                -0.468386
                  10.1982                 -31.7513                 0.447453
               -0.0208652                 0.311135                0.0272269
             -0.000315111             -7.24769e-05              7.50528e-06
                0.0110582                 -1.02365              9.23391e-05
                 -4.97659                 -2.21035                 0.120488
                 0.671632                -0.267923               -0.0424468
                -0.536362                  1.52416                0.0452355
                -0.947475                 -10.0061                 0.211653
                  18.0554                  8.42951                -0.202608
                  28.5097                 -9.16208                -0.468416
                  10.1993                 -31.7512                  0.44712
               -0.0330879                 0.310489                0.0282939
              -0.00031601             -7.27698e-05              7.52673e-06
                  0.01722                 -1.02356              9.13585e-05
                  -4.9755                 -2.21273                 0.120474
                  0.67426                -0.261075               -0.0425046
                -0.540977                  1.52288                0.0453223
                -0.945559                 -10.0063                  0.21158
                  18.0548                  8.43074                -0.202595
                    28.51                 -9.16098                -0.468447
                  10.2005                 -31.7511                 0.446787
               -0.0452686                 0.309444                0.0293246
             -0.000316909             -7.30635e-05              7.54821e-06
                0.0233811                 -1.02343              9.03748e-05
                 -4.97441                 -2.21512                 0.120459
                 0.676817                -0.254201                -0.042558
                -0.545587                  1.52159                0.0454087
                -0.943643                 -10.0065                 0.211507
                  18.0542                  8.43198                -0.202583
                  28.5104                 -9.15988                -0.468478
                  10.2016                  -31.751                 0.446453
                -0.057392                 0.308006                0.0303181
             -0.000317809             -7.33579e-05               7.5697e-06
                0.0295414                 -1.02326              8.93881e-05
                 -4.97331                  -2.2175                 0.120445
                 0.679305                  -0.2473               -0.0426069
                -0.550192                  1.52028                0.0454946
                -0.941727                 -10.0067                 0.211434
                  18.0536                  8.43321                 -0.20257
                  28.5107                 -9.15878                -0.468508
                  10.2027                 -31.7509                  0.44612
               -0.0694432                 0.306178                0.0312731
              -0.00031871             -7.36531e-05              7.59122e-06
                0.0357006                 -1.02305              8.83984e-05
                 -4.97222                 -2.21989                  0.12043
                 0.681722                -0.240373               -0.0426514
                -0.554791                  1.51896                0.0455801
                -0.939811                 -10.0069                 0.211362
                  18.0529                  8.43444                -0.202558
                  28.5111                 -9.15768                -0.468539
                  10.2038                 -31.7507                 0.445787
               -0.0814076                 0.303964                0.0321889
             -0.000319613              -7.3949e-05              7.61277e-06
                0.0418584                 -1.02281              8.74057e-05
                 -4.97113                 -2.22227                 0.120415
                 0.684068                -0.233422               -0.0426915
                -0.559386                  1.51762                0.0456652
                -0.937895                 -10.0071                 0.211289
                  18.0523                  8.43568                -0.202545
                  28.5114                 -9.15659                -0.468569
                  10.2049                 -31.7506                 0.445453
               -0.0932707                 0.301372                0.0330645
             -0.000320516             -7.42457e-05              7.63434e-06
                0.0480147                 -1.02253              8.64102e-05
                 -4.97003                 -2.22466                 0.120401
                 0.686343                -0.226446               -0.0427272
                -0.563975                  1.51627                0.0457498
                -0.935979                 -10.0073                 0.211216
                  18.0517                  8.43691                -0.202533
                  28.5117                 -9.15549                  -0.4686
                   10.206                 -31.7505                  0.44512
                -0.105019                 0.298406                0.0338992
              -0.00032142             -7.45431e-05              7.65593e-06
                0.0541692                 -1.02221              8.54118e-05
                 -4.96893                 -2.22704                 0.120386
                 0.688546                -0.219447               -0.0427584
                -0.568559                  1.51491                0.0458341
                -0.934063                 -10.0075                 0.211143
                  18.0511                  8.43814                 -0.20252
                  28.5121                 -9.15439                 -0.46863
                  10.2071                 -31.7504                 0.444787
                -0.116639                 0.295075                0.0346924
             -0.000322325             -7.48412e-05              7.67755e-06
                0.0603217                 -1.02185              8.44106e-05
                 -4.96784                 -2.22942                 0.120372
                 0.690678                -0.212425               -0.0427851
                -0.573137                  1.51353                0.0459179
                -0.932147                 -10.0077                  0.21107
                  18.0505                  8.43938                -0.202507
                  28.5124                 -9.15329                -0.468661
                  10.2082                 -31.7503                 0.444454
                -0.128117                 0.291385                0.0354434
             -0.000323232             -7.51401e-05              7.69919e-06
                0.0664719                 -1.02146              8.34065e-05
                 -4.96674                  -2.2318                 0.120357
                 0.692739                -0.205381               -0.0428075
                -0.577711                  1.51213                0.0460013
                -0.930231                 -10.0079                 0.210997
                  18.0498                  8.44061                -0.202495
                  28.5128                  -9.1522                -0.468692
                  10.2093                 -31.7502                  0.44412
                -0.139442                 0.287344                0.0361518
             -0.000324139             -7.54397e-05              7.72086e-06
                0.0726197                 -1.02102              8.23997e-05
                 -4.96564                 -2.23419                 0.120342
                 0.694727                -0.198315               -0.0428253
                -0.582279                  1.51073                0.0460842
                -0.928315                 -10.0081                 0.210924
                  18.0492                  8.44184                -0.202482
                  28.5131                  -9.1511                -0.468722
                  10.2105                 -31.7501                 0.443787
                -0.150601                 0.282962                0.0368173
             -0.000325047             -7.57401e-05              7.74255e-06
                0.0787648                 -1.02055              8.13902e-05
                 -4.96453                 -2.23657                 0.120328
                 0.696643                -0.191229               -0.0428387
                -0.586841                  1.50931                0.0461667
                -0.926399                 -10.0082                 0.210851
                  18.0486                  8.44308                 -0.20247
                  28.5135                    -9.15                -0.468753
                  10.2116                   -31.75                 0.443454
                -0.161584                 0.278246                0.0374394
             -0.000325956             -7.60412e-05              7.76427e-06
